ply
format ascii 1.0
comment created by aysu_sayin
element vertex 64
property float x
property float y
property float z
property float r
property float g
property float b
element triangle 80
property list uchar int vertex_indices
end_header
2.5 4 0 0.91 0.76 0
-2.5 4 0 0.91 0.76 0
-2.5 3.8 0 0.91 0.76 0
2.5 3.8 0 0.91 0.76 0
2.2 4 5 0.91 0.76 0
-2.2 4 5 0.91 0.76 0
-2.2 3.8 5 0.91 0.76 0
2.2 3.8 5 0.91 0.76 0
2 3.8 0.5 0.91 0.76 0
2 3.8 0.8 0.91 0.76 0
1.7 3.8 0.8 0.91 0.76 0
1.7 3.8 0.5 0.91 0.76 0
2 0 0.5 0.91 0.76 0
2 0 0.8 0.91 0.76 0
1.7 0 0.8 0.91 0.76 0
1.7 0 0.5 0.91 0.76 0
-2 3.8 0.5 0.91 0.76 0
-2 3.8 0.8 0.91 0.76 0
-1.7 3.8 0.8 0.91 0.76 0
-1.7 3.8 0.5 0.91 0.76 0
-2 0 0.5 0.91 0.76 0
-2 0 0.8 0.91 0.76 0
-1.7 0 0.8 0.91 0.76 0
-1.7 0 0.5 0.91 0.76 0
2 3.8 4.2 0.91 0.76 0
2 3.8 4.5 0.91 0.76 0
1.7 3.8 4.5 0.91 0.76 0
1.7 3.8 4.2 0.91 0.76 0
2 0 4.2 0.91 0.76 0
2 0 4.5 0.91 0.76 0
1.7 0 4.5 0.91 0.76 0
1.7 0 4.2 0.91 0.76 0
-2 3.8 4.2 0.91 0.76 0
-2 3.8 4.5 0.91 0.76 0
-1.7 3.8 4.5 0.91 0.76 0
-1.7 3.8 4.2 0.91 0.76 0
-2 0 4.2 0.91 0.76 0
-2 0 4.5 0.91 0.76 0
-1.7 0 4.5 0.91 0.76 0
-1.7 0 4.2 0.91 0.76 0
-2.5 8 4.7 0.91 0.76 0
-2.5 8 5 0.91 0.76 0
-2.2 8 5 0.91 0.76 0
-2.2 8 4.7 0.91 0.76 0
-2 4 4.2 0.91 0.76 0
-2 4 4.5 0.91 0.76 0
-1.7 4 4.5 0.91 0.76 0
-1.7 4 4.2 0.91 0.76 0
2.5 8 4.7 0.91 0.76 0
2.5 8 5 0.91 0.76 0
2.2 8 5 0.91 0.76 0
2.2 8 4.7 0.91 0.76 0
2 4 4.2 0.91 0.76 0
2 4 4.5 0.91 0.76 0
1.7 4 4.5 0.91 0.76 0
1.7 4 4.2 0.91 0.76 0
-2.075 7 4.575 0.91 0.76 0
-2.075 7 4.875 0.91 0.76 0
2.075 7 4.875 0.91 0.76 0
2.075 7 4.575 0.91 0.76 0
-2.18 7.84 4.68 0.91 0.76 0
-2.18 7.84 4.98 0.91 0.76 0
2.18 7.84 4.98 0.91 0.76 0
2.18 7.84 4.68 0.91 0.76 0



3 0 1 2
3 0 2 3

3 4 0 3
3 4 3 7

3 2 6 7
3 2 7 3

3 4 5 1
3 4 1 0

3 5 4 7
3 5 7 6

3 5 6 2
3 5 2 1

3 8 11 15
3 8 15 12

3 9 8 12
3 9 12 13

3 10 9 13
3 10 13 14

3 11 10 14
3 11 14 15

3 15 14 13
3 15 13 12

3 16 19 23
3 16 23 20

3 17 16 20
3 17 20 21

3 18 17 21
3 18 21 22

3 19 18 22
3 19 22 23

3 23 22 21
3 23 21 20

3 24 27 31
3 24 31 28

3 25 24 28
3 25 28 29

3 26 25 29
3 26 29 30

3 27 26 30
3 27 30 31

3 31 30 29
3 31 29 28

3 32 35 39
3 32 39 36

3 33 32 36
3 33 36 37

3 34 33 37
3 34 37 38

3 35 34 38
3 35 38 39

3 39 38 37
3 39 37 36

3 40 43 47
3 40 47 44

3 41 40 44
3 41 44 45

3 42 41 45
3 42 45 46

3 43 42 46
3 43 46 47

3 40 41 42
3 40 42 43

3 48 51 55
3 48 55 52

3 49 48 52
3 49 52 53

3 50 49 53
3 50 53 54

3 51 50 54
3 51 54 55

3 48 49 50
3 48 50 51

3 58 57 56
3 58 56 59

3 59 56 60
3 59 60 63

3 62 61 57
3 62 57 58

3 60 61 62
3 60 62 63
